# 3D point list with one line of data per point:
#   POINT3D_ID, X, Y, Z, R, G, B, ERROR, TRACK[] as (IMAGE_ID, POINT2D_IDX)
# Number of points: 416, mean track length: 3.2873602168756353
5120 0.41108956966892402 3.8863667281490017 2.146812354779986 105 67 28 0.57596458777527004 2 245 4 306 9 313
5121 -0.29576719898066911 -0.5214422451336338 1.7336108791748912 51 47 48 1.9322180808834135 2 746 9 202 4 358
6064 6.2173884662217338 1.2613114210248255 4.0969774822924787 124 135 127 1.6354247403992965 4 2581 8 3323
5122 6.8496687680813624 0.19884890233373659 5.333123872429284 47 48 44 1.4475190371659121 3 298 4 365 11 1127
6589 5.3676473450921875 2.3216140661858402 3.2482661155222865 81 80 75 0.85609590270647351 8 2889 10 3090 5 2604
5124 0.40538701881647971 3.836000204828375 2.2793490499490043 104 67 25 0.55002301784514751 3 500 4 409 9 584
5125 1.4866619953408133 3.7927832031148849 2.3766771493625982 115 73 31 0.27711009280692889 3 383 4 420
6068 -0.29694589132725957 0.31209165354230434 1.3353403664415475 203 138 162 0.52732049480064924 9 5480 11 6999 8 3453
5127 0.70201662297455003 3.0664511103619572 4.4433327517729451 143 110 69 1.0952618112106687 3 398 4 426 9 446 11 408 8 419
7094 0.43786405400958628 3.629386770870815 3.6782086605211286 164 123 131 2.3079488967610851 5 1488 15 1048 16 891
5128 -0.075734941440880041 0.99493342765361559 1.4341038462317628 68 22 33 1.2016248129232785 3 568 4 455 9 470
6587 -0.38036787473364836 0.084841148498352462 1.6854284095268361 109 51 66 0.69567868821560219 8 2870 10 3078 5 2592
5129 2.692469223473676 1.8798859404337904 8.6938531972113111 80 49 20 1.5446863857377822 3 246 4 456
6072 -0.41487941993174954 0.24717124590869688 1.6015575427721005 97 40 57 0.73247240619528364 9 5505 11 7022 8 5693
5133 1.7108038317059842 3.8096534425226207 2.2762598992047836 156 122 74 0.27993328094079095 3 528 4 560 9 617
6076 1.6206142044749434 1.5459008786013049 1.8680729466895882 86 36 48 2.5042058866955124 9 887 11 7120
5134 0.69249896855562776 3.0229628064001335 4.548351004906757 110 77 36 0.66331789389937001 3 477 4 571 9 618 11 608 8 435
5135 0.48880779463055746 2.8789654272129077 4.934453826018613 88 54 25 0.57562538249055906 3 807 4 576 9 616 11 563
5137 6.3266441130810369 0.82725179359731571 5.1306650014938349 169 170 165 1.7938428474217638 3 705 4 675 11 1156
6016 -0.75992103048310355 2.9868125490744437 4.6215632280241081 146 117 77 0.61769185909137614 9 3917 11 5003
5138 0.038752243521342454 3.6214789937629055 2.449168570479646 99 72 65 0.42577377122072707 3 1034 4 705 9 1304
6541 3.1644813009601078 3.5059204048812513 3.1122343155321581 112 75 33 1.887172132618101 8 2977 10 1992 5 2714
5139 -0.075376480639835153 3.6579951529276138 2.5023761835610117 56 31 26 0.41659924384920943 3 1051 4 711 9 739
5141 -0.22874695594416047 -0.6932705570940062 1.7378131306242761 18 16 17 1.4139608924063942 3 5212 9 4335
6020 8.014754368676547 -0.57981181787242553 4.3106610742590945 106 55 62 0.88216883873045271 4 2230 11 5388 8 1973
5144 7.1409891860501409 0.17921536872174362 5.3670556937552876 46 49 46 1.04227319810471 3 453 4 788 11 1981
6539 6.9258455186700356 0.61868361885003642 -0.74744656436040158 35 130 157 0.83929330340043284 8 1931 5 1041
5145 6.7630847716736735 0.37714094847038077 5.5923626997300717 54 49 39 0.21332966380437254 3 890 4 800 11 678
6024 7.8333557195515606 0.4907790453889942 4.0195011654619019 103 115 110 1.0744546299378848 4 5970 11 5475
5149 0.213910689924355 2.6356305949605177 5.7136250149529131 130 98 60 1.3676935135644592 2 575 4 913 9 2263 3 4466
6028 1.1663634945899772 3.15363928858465 4.1542337671432845 147 110 68 0.35832839685284573 9 6595 11 5607 10 3867
5152 1.3837771850580824 3.7682729491981517 2.3817633933453952 112 73 30 0.27131112093347715 3 840 4 954 9 692
6860 -0.36535405854558284 3.8197355145369833 2.3890475729817049 93 58 20 0.80952568391879642 10 2500 5 2023 15 3097 16 6230 12 4610
5154 0.50688705223410457 2.8943052446195776 4.9014771127001016 125 92 59 1.1963364077143142 2 1615 3 1121 4 1023 9 1164 11 920 8 718
6493 6.8220287229645225 1.3737196657510338 2.4554238477728312 62 53 54 1.9201305992521276 8 1108 10 1302 5 635
5157 -0.27639821024773537 1.9102676511405363 1.7663799853236368 88 39 32 0.85115095958437292 3 1620 4 1027 9 1130 11 2052
5972 1.865487820955726 3.7960730332742836 2.4410309077588841 0 0 0 0.33193556903495491 3 1755 4 3045
7873 1.3921630779850391 3.4466911195145733 3.3220396761807396 159 135 99 0.35749413047602685 15 4870 16 8374 25 8409 12 6958
5159 -0.15346815473060318 2.9343583316826503 4.7768561748493488 134 105 65 0.72870404528224675 3 1663 4 1067 9 704 11 756 8 696
6998 0.67958644059901863 2.9896174035681109 4.572224467443446 148 117 70 1.1170150884148984 10 4092 5 5516 15 5385 16 2469
7882 -0.57176606735702507 3.8961002987846496 2.1863113614117147 175 144 113 1.3194127417475607 5 5432 16 8563 12 4568
5160 1.9188099925406763 3.7655456724990892 2.3941064707214021 160 123 81 0.10560644291430552 3 984 4 1069
6491 6.5508523351183303 1.686875525580203 0.88178440496191135 204 216 212 0.77889190730337698 11 1968 10 1287 5 1070
5161 0.32689525327664237 3.0932055337678537 3.5331176685865935 162 128 121 0.37106230746447444 3 2611 4 1077
5976 1.785167248009379 2.9992532367602895 4.5319877361414695 140 105 67 0.89436630338182432 9 5914 11 4253 8 2117
5162 0.66773888142329108 3.7220230688963047 2.606605164857327 91 57 22 0.68848996103411964 3 1803 4 1123 9 1255
5167 -0.21614962005313298 1.5807154849210889 1.6916992431995184 77 29 43 0.85736485028055853 4 1217 9 1360 11 2554
5169 -0.0076483496038387737 1.7797105217534057 1.6640203534760705 153 122 79 2.0470285700809314 3 1550 4 1227 9 1073 11 590
6048 0.29443053901004673 2.9793915073561115 4.6151860306754964 115 83 38 1.0920155500428139 9 7295 11 6084 8 4100
6876 6.4125969427555098 2.2854202101367638 -1.2189110419523357 122 128 126 0.75205944120773049 8 1869 5 2364 15 3702
5170 0.98702970191728467 2.8429410147786394 5.0466355095613853 137 107 69 0.66924085873385064 3 1555 4 1229 9 951
6573 6.7232085972088163 1.4774985283295372 2.0508134971450609 134 104 120 0.80268374365136019 8 1848 10 2881 5 2420
7889 -0.51614911405681385 3.7640479819807018 2.4204724308127918 149 119 85 0.52807838834865539 15 5060 16 8681 25 6203
5175 6.8312024072655326 0.43862215945437533 5.44174682775847 94 89 80 0.38189804634176272 3 891 4 1391 11 2074
7078 6.3217299493508028 2.0144981863130531 -0.94720289145625391 10 19 18 1.3905184883794426 5 1380 15 794 16 791
7898 -1.1516468066330998 3.9061488383050254 2.154479770130131 138 101 60 0.66702400534013262 5 4084 25 1841
5176 0.10493168989581171 3.6897855176980254 2.4434868121668623 142 110 111 0.59038312733355891 3 1858 4 1442 9 2509
10739 -1.2738907418985734 4.123440512733147 1.446485538064012 161 137 91 0.72680404319076675 27 6238 20 1817
5184 -0.20044474008234892 1.7950067793218545 1.71501214546285 133 84 80 0.74408809866159376 3 1573 4 1788 9 2157
5185 0.5358135202156793 2.7307792202007746 5.2458812244078041 138 113 72 0.94436087826621939 3 1564 4 1789 11 912
6128 -0.48755721846163613 3.59970695677108 2.955961788626051 89 56 23 2.2048254001159862 11 423 8 428 10 393 5 549 15 599
5186 2.4968234385393764 3.5567297872496151 2.9624689154812311 165 130 82 0.26493280805238439 3 1640 4 1796
6653 1.6638177298451016 3.1958759008912891 4.0360321671824115 143 114 70 1.555372943094681 8 4617 10 4988 5 6457
5189 0.067685442174714575 2.6282174951193746 5.6893728889578794 94 63 25 0.45503888898734174 3 4472 4 1805 9 2279
6132 7.7866361106804556 1.3990604036697438 3.4031544784024681 71 77 77 1.0728915918113029 9 340 8 464 10 306
5191 0.66226215432630475 2.8795314359084481 4.9191052445395211 126 93 62 0.83587262961501985 3 2541 4 1810 9 3470 11 2752 8 1453 10 959
5192 0.76715185752107451 2.9439350482828583 4.7279420287504523 141 109 70 0.8368213084604782 3 1601 4 1815 9 1145 11 1504 8 1001 10 872 5 755
6651 -0.11320732970095999 0.0045571101016280841 2.128109991566526 127 59 84 1.6991199305573079 8 3426 10 4973 5 5203 16 6840 15 4355 12 5723 25 9640
5193 0.36139119575823331 2.800813459239607 5.1653779698695628 97 65 27 0.94338795417005805 2 1607 3 1592 4 1821 9 1172 11 925
6136 6.4468487709100915 1.6852896547428944 2.0951286039344628 137 92 112 1.3663681411520765 9 842 8 523 10 2930
10693 -5.3793734640151971 2.6016963566646503 1.102118783568554 65 46 50 0.9932570659669514 21 3790 22 6070 20 5224
5194 -0.13085356077433563 1.9453616915455352 1.7007632315908485 141 95 88 0.70266980636781418 3 809 4 1826 9 2183
5197 0.67125427568920504 3.0380366466709026 4.5035917471031199 145 112 71 0.54504695671039771 3 2291 4 1856 9 2268 11 1522
6140 1.8654998482119289 3.0476362905047618 4.4157922278166657 144 109 69 0.46653454735830535 11 839 8 596 10 541
11262 0.07391652852684337 3.4726105329010011 2.551482509599285 32 8 6 0.69237185189742223 20 1857 30 1712 31 1066 26 1150 35 1151 23 1425 28 1422 29 1893
5199 0.66460497876481206 3.0436077860263122 4.4701638944497226 111 78 37 0.87342386513633896 3 2268 4 1862 9 2271 11 2763 8 1442 10 1425 5 921
5205 0.018534188422280884 3.0340100086617734 4.5051124068717447 114 81 42 1.280514541818301 3 1673 4 1920 9 1233 11 951
6084 0.044105127382643848 3.8062241285937475 2.3870966240469507 123 89 51 0.64837032872646849 9 6535 11 7588 8 6234
5208 -0.11603705888564687 3.1138936841801366 4.3576819754210323 138 106 66 1.2951761496172867 2 4562 4 1954 9 1252 11 1608
6603 1.6986192363089823 3.4028640313691478 3.4265664715156734 143 110 69 0.98337335609349119 8 3700 10 3711 5 3070 15 4833 16 3543
5929 -0.34904101609214477 2.9082761471340377 4.7924106416867689 104 72 28 0.028632317416356627 9 3763 11 2947
5209 -0.65626855379950177 2.8848131148597678 4.8871071359107283 131 101 63 1.2778074987606978 3 4664 4 1955 9 2438 11 3013
6088 -0.11629410893189074 3.8435298410758736 2.3064887127416251 148 113 71 1.0919911674999327 9 7320 11 7772
5213 -0.51341097262691382 3.0163081403529732 4.5063558928598155 105 75 37 1.7232002493034251 3 1706 4 1976 9 3844
6434 6.3736729016367821 1.8702804663281132 2.2044990172057224 187 155 176 0.24822564853005144 8 881 10 608 5 516
6092 3.7210006491484906 3.1340690140236513 4.1072959267857669 124 85 56 1.2899898722667855 3 4381 4 4925 11 7780 8 4977 10 6735 5 2257
5216 -0.6790412063867256 3.10150230163456 4.4626982830190105 135 105 67 2.0312192662673394 3 1744 4 2016 9 2502
5217 0.0094184966383179646 3.3926147876310022 3.4932342664419913 105 79 46 1.2254836666245195 3 5436 4 2025 9 2434 11 1599
6032 0.8683418540703427 2.9794903897085652 4.6437891559452318 145 116 75 0.56894519576747216 9 6940 11 5721 8 3888 10 2358
5218 -1.0479366969398654 2.992469768483359 4.6559045954500835 129 102 63 0.086703519168606108 2 3932 4 2028
5221 0.7856609466292348 3.9061793195157932 2.0656170353828354 113 80 37 2.2588023948241038 2 2838 7 6520 4 2062
6036 0.32103575006845209 2.7925848860594606 3.0410320298625524 53 20 11 2.4015406439507161 9 7305 11 5797 5 4553
5223 -0.0078803592967227956 3.515770548192962 2.5524461996552699 34 13 8 0.29081741675954925 3 3745 4 2073 9 3926
7062 0.72702443469933553 -0.20612252012318047 1.7764316876011141 8 8 6 0.38346471503938162 8 2690 15 514
5225 0.7252865997604957 3.9531265494184051 1.9329807574118232 103 66 24 0.96466016673736898 1 788 3 626 7 1307 4 2085 2 1886 14 2561 9 2441
6040 0.6882722243277184 3.4699165047320415 3.1801079071081695 135 105 94 1.4394946900615453 9 4575 11 5956 8 6869
5226 0.68097278723137211 3.9768629664844948 1.8881575471680887 153 120 75 0.42750467563357525 2 2922 4 2094 9 2456 11 2839
5229 -0.0069685160287507901 3.850802114134471 2.2482968739660256 139 102 58 0.43860658201304875 3 3123 4 2140 9 2564
6044 0.46936110137826448 3.1363095472202209 4.2579003961789867 153 122 75 1.0016975969628339 9 4429 11 6014 8 6119
5231 6.1057210604858865 0.95957886625303568 5.399157922061832 131 140 148 0.80066628951498864 3 3438 4 2151 11 3758
5233 -0.091688305849152565 -0.79291535233356358 1.5689467145789358 213 198 208 1.3723241166116864 2 3748 4 2194
6112 2.619781433466668 2.9545820648485472 4.6239367110669285 138 107 61 0.81330287911456745 11 74 8 89 10 57
5237 6.9386654774221848 0.027048669197062454 5.3292423519445427 176 178 177 0.25403810490337059 3 2073 4 2271 11 1988
6116 0.036127178570761517 -0.73666287588661739 1.3932483323951403 41 39 27 1.9170174708486472 4 107 10 207
5238 7.0490031732894529 0.078820110936513574 5.3163466008869165 129 134 130 0.61302141098501284 3 2077 4 2276 11 3410
5239 6.9382940212587156 0.32531640436800185 5.3678518796811492 75 73 60 0.58197886951078293 3 3252 4 2293 11 1969
7142 2.6633575501293105 3.6293079626564277 2.6040011709407498 133 102 58 0.2345485568255577 5 1744 16 1432
5240 6.7925888794416496 0.34815960636468746 5.40722135017712 72 70 65 0.51534626361377212 3 2105 4 2297 11 6738
6635 6.1816375412451583 1.8494196089350459 0.38358769401043741 1 17 20 1.2493336905029797 11 682 5 2389
5241 6.6899372391405914 0.33430655219742955 5.5237006963212218 125 125 113 0.3719368411574166 3 2107 4 2299 11 2066
6120 5.6728609696820316 3.1307204991715114 3.5586011707210785 110 80 44 1.0441602354993327 4 200 8 278 10 268 5 231
5245 6.2879212504542856 0.61389008839907322 5.7426737367818985 139 139 139 0.40757615937507508 3 2153 4 2341 11 2130
6124 -0.36190998288743159 0.41697209486187775 1.401790132145647 145 92 112 0.51879724520140991 11 294 8 384
5248 6.1476349828936057 0.81083183386449253 5.9030165758830755 161 165 171 0.58081731029881245 3 2174 4 2365 11 2198
5905 2.2860824441997334 2.8139269314071127 5.0290582809768418 129 95 58 0.45950838839412295 9 2629 11 2541 8 1435 10 1153
5252 1.3131513020038097 1.9415742538999996 7.0561069596662609 130 101 71 2.605637474321929 3 2391 9 1316
5909 1.5351171640163879 2.9861875433978877 4.5596769226382818 111 77 39 0.28086004737805903 9 2152 11 2620
10506 -0.32733025510140007 4.2257435984629099 1.292339936029572 114 82 41 1.595455763576173 27 6363 22 2157 20 2347
5253 0.99408075396871687 2.8482646405599215 5.0116572905076469 104 74 36 0.60196064368608837 3 2244 4 2492 9 2195
5254 4.0211999145112145 3.137027067506688 4.0983084421373528 138 105 60 0.51739747460004659 3 4357 4 2503 11 6201
6935 0.13493828317361953 4.1784184686914783 1.3140459296736828 144 108 60 1.3067909172319618 10 2315 5 3345 15 2928
5256 6.1400868309726748 0.56752670070776656 5.9194492190346839 63 59 58 1.7341528438419338 3 2154 4 2640 9 4396
5913 1.3422589259503364 2.9798632139575134 4.6129903423729255 133 99 61 0.36916399856474175 9 3348 11 2646 8 2155
5259 1.0310394740335131 2.9510946050453941 4.7288366353561084 127 95 57 0.54475556250203894 3 4488 4 2857 9 3400 11 4402
5260 0.89346750504706995 2.9032964267521981 4.753369880544513 101 68 35 1.6963077726562457 3 2470 4 2861 9 3423 11 4425 8 1949
5917 0.58547285056124942 2.9225999034286159 4.7636355905794554 109 80 39 1.1402103338515301 4 2912 11 2766 8 1462 10 887 5 744
5261 0.79331765572357882 2.9272009563044383 4.7916175673395349 130 97 62 1.2059599516434674 3 2472 4 2874 9 3457 11 2729 8 1431 10 871
6418 7.3225319802829762 1.2072561884479329 2.0019950270385438 175 179 178 0.52170785798587105 8 915 10 430 5 680
5262 1.0836030829848478 3.0567604643809778 4.4086457267344654 128 95 52 0.34594959757287302 7 4308 4 2879 11 4396 9 6295
5264 0.68325826987224092 2.9719248679446189 4.6955438775659193 101 73 33 0.51549511680150084 3 2360 4 2911 11 4506
5985 3.9985066050493763 6.1491792986471667 4.614834384804869 53 22 1 3.1979135511220758 9 3545 11 4418
5267 0.44394249224220622 2.9299555399034527 4.7954671339791002 134 104 66 0.7208860462427068 3 3976 4 2932 9 2280 11 1034
5268 0.31775811061798687 2.5555812597389629 3.120037087165711 76 48 24 1.7239445372296385 3 2338 4 2937
5989 0.59658132907559569 2.8329425350884767 4.9977498411888179 107 74 34 0.17966444544174731 9 6993 11 4513 8 4002
5272 0.33362838607555151 3.0275581430474929 4.5135952049722059 134 105 65 0.66067083664132353 3 4594 4 2982 9 2307 11 2820 8 1496
5993 0.5330744362290305 3.2634754435457913 3.8872376194110085 145 108 66 0.34150449807277439 9 4485 11 4591 8 2267
5275 0.50282612756384271 3.1143565071720105 4.3023648753250487 112 80 39 0.54072506760681438 3 2555 4 2993 9 3565 11 2797 8 1465
6504 -0.20031872584324009 3.8288818947912548 2.3104073002721228 142 111 65 0.44489566902346828 8 944 10 1465 5 1458 15 1846
5276 -0.11799361306871825 2.8608309996110854 5.0332469070284516 109 79 41 1.4499220143768718 3 1635 4 2995 9 3653 11 5410
5277 -0.14368064492976243 2.8774591611772888 4.9742753889150864 109 81 42 1.5032901273953918 3 4579 4 3003 9 2346 11 2913
6498 0.35911738236852109 3.9215032395941969 2.0397742887890824 151 118 74 0.019274921875306751 8 1299 10 1378
5278 0.32815169622427515 3.0736099970711872 4.42170580745797 71 39 1 0.29095541882831438 3 4616 4 3004 9 3599 11 2827
5280 0.068320690175838056 3.0448476141640146 4.547250772846418 134 105 63 1.298579368278693 3 4631 4 3031 9 3669
5937 -0.65317152343096629 3.089623853227963 4.4162158719693396 137 105 64 2.0459242245248599 4 5998 9 7265 11 3109
5285 -0.66175320976238683 2.8951197167209917 4.8779248244473186 105 73 35 0.89589697353702691 3 4666 4 3110 9 5030
6100 -0.23623915803658005 1.7135517957145565 1.7250816813823724 110 62 58 0.58472214989984439 9 5961 11 8372 8 4438
5288 -0.54276147089376081 3.0288965250094813 4.5535873968527998 105 72 37 0.23823359635604757 3 5121 4 3159 11 4941
6619 -0.098726030965260544 3.822804649036577 2.2688787331472455 111 74 30 0.031786823851882841 8 2375 10 4123
5945 8.2814295468431212 -0.6374392095304533 4.5746494008814587 34 13 1 1.7216524337900996 4 488 8 314
5293 -0.44591816559867042 3.1752059927476415 4.1476516759793078 101 72 36 1.2514105508090194 3 5293 4 3223 11 4924 8 6703
6450 4.3242763492175156 3.2290111678698477 3.8283171062448953 84 46 10 1.1400794722782137 8 824 10 823 5 348
5295 0.66928403857492569 3.6900740134218823 2.6714484819687656 93 59 23 0.81622584001126075 2 3409 4 3250 9 3756
5296 1.133591672745998 3.9478843355951838 1.9208399541874464 103 70 27 0.50506018335875347 3 2923 4 3279 9 4700
5889 7.1756444005747122 0.99574286350373931 4.8105729004561564 143 148 146 0.50794246052853931 4 1360 11 2107 8 1816
5299 -0.067255666452235185 3.5158332153013947 2.596641895663458 56 36 27 0.82102240058694231 3 3754 4 3350 9 6347
5300 0.049323256264008825 3.5794815925233991 2.4720365280480867 101 72 64 0.29527095448715868 3 2932 4 3353 9 3932 11 7458
5893 6.155665546175106 1.1789564933096537 5.2603172820130162 10 18 29 0.51251495750240605 3 2196 11 2227 8 1965
5302 -1.4864801896963566 3.0990587499074871 4.4259811932748416 134 102 64 0.76262673294173555 3 5512 4 3382
6919 0.11358868758156961 4.1520946704749546 1.4465056444987863 176 140 92 1.6090597284995587 10 3956 5 3080 15 4777
5304 -0.16594882645736317 3.6752895093478504 2.626365363844128 72 47 40 0.66095145217805296 3 2997 4 3428 9 4028 11 7736
5897 -0.33758587793113914 0.11397419646659267 1.6566627911458522 97 38 56 0.28178888830449872 9 2775 8 1762
5307 0.60218304225077524 2.9102620656418381 4.8546485673225535 131 98 65 0.49580357549769527 3 2566 4 3568 9 3494
6408 6.5485761083066452 1.7440397689434266 2.7753820000246137 40 40 40 1.1985432963763558 8 426 10 314 5 278
5308 1.9166942552181048 3.6382455166330856 2.7536566422312703 119 81 36 0.44363539852316852 2 1717 3 1692 4 3574
5901 3.5376777739332619 2.7050819508318984 5.2391726598886672 88 54 18 0.77003643349879447 9 2863 11 2435 8 2971
5309 -0.058680117593398917 -0.82647637634637394 1.5713218782480776 133 124 132 0.11648879669255849 4 3594 9 4283
6402 3.6742988053673553 3.201113194859766 3.9956393849135026 138 107 63 1.7785447695047623 8 328 10 257 5 225
11023 -5.967502988933564 0.33521878128627958 0.15872594571733195 13 12 26 0.77314880396382846 17 3811 21 5474 20 3874
5310 0.16469389395673212 -0.69816103541892438 1.2611686421541533 183 188 189 1.8189427522674215 3 849 9 1025 9 4285
5311 -0.10728991484734945 -0.77229799515277098 1.4781334657718737 35 21 27 1.5423176150371827 3 2021 9 4121 11 1393
5316 6.2270522656580809 0.95877018138125147 5.1885487863666251 117 118 120 0.65681375677004561 3 2180 4 3736 11 6192 8 2816
5973 2.1282508507832163 2.8193734957880059 5.0337522446638836 101 72 32 0.80636994402065754 9 3221 11 4191 8 2082 10 2168
10570 -5.4344866518194319 0.88383070729173074 0.28427103344430343 178 142 154 0.59445825304313227 17 1847 22 3090 20 3934
5317 6.1622823995952229 0.93066610381158954 5.3679147847370769 149 166 166 0.64452064055555358 3 2183 4 3739 11 3718
7716 -0.51472568776770877 3.384558660008083 3.655197570013232 137 105 67 1.9793235110758511 15 8549 16 4558 25 6884
5318 6.1524853366649319 0.94657740741004892 5.3966973832950504 76 101 101 0.14597208080300608 3 2185 4 3743 11 3736
6999 -0.97551637000941327 3.989330043533367 1.9859588347396526 156 125 79 1.4437567566193863 10 4396 5 5613 15 6422
6697 0.227744010484557 3.1704034339590561 4.1311529846470787 119 87 42 1.1921552257986241 8 6271 10 6587 5 4012
5323 0.38661586895271777 3.0630593295971655 4.492531665306994 135 103 62 2.1358404804383548 3 4599 4 3787 11 4627
6488 6.8658012272437139 1.3906365136508765 1.8717989783096203 185 143 160 0.82096755953970246 8 2711 10 1284 5 1072
6690 0.50680421166957046 3.0891532893135247 4.3293466427849294 158 125 82 0.54384606504046629 8 6079 10 6420
5324 -0.2788776700955562 2.7913135034018817 5.1316164309233478 97 67 31 0.8423494741178984 3 4566 4 3799 9 3683 11 4795
5981 0.31636812554938959 2.4557627767265306 2.6555362704844958 147 112 72 0.36041135429999482 9 6617 10 2190
7715 -0.98016024561174331 3.4335903390472544 3.3481274677749218 151 122 88 0.86519833207795382 15 5574 16 4554 25 8441
5325 0.32598836999282899 2.8396889509415559 3.3446435070694909 147 119 86 0.90853234594569088 3 2573 4 3805
6482 6.9164182224055324 0.43181979162191558 -0.80344578018754698 201 222 219 1.1931008727285795 8 742 5 699
5331 0.28489309503263655 3.361768922172701 3.5244956126429665 58 30 17 0.2852067417681669 6 5425 9 3739
5332 -0.66555747343947069 2.995841803319911 4.5796638341982128 135 102 67 0.056619361811439291 3 2639 4 4078
6053 0.44649751602963095 3.8274111133867712 2.151344202254363 118 84 39 1.5761419750638712 9 6167 11 6191
5334 0.7909051516946638 3.6820190881998247 2.5621910925483351 123 89 54 1.5451639376961848 3 5565 4 4200
7079 6.605782243805729 0.6109904944634591 -0.56593056964113531 16 130 171 2.1764924205531595 5 1338 10 978 15 825
5340 -0.24276807467320077 -0.6293400685970888 1.8018130573976463 112 116 115 1.0197215642872717 3 4037 9 255
6061 -0.057536377761964193 -0.24335174237060717 1.3149845284850856 62 42 33 1.6580524870852487 9 753 11 6699
5344 6.2036827543866577 0.89800000349100773 5.3196478542514631 76 89 89 0.73313375788192603 3 2175 4 4542 11 2176
6001 -0.044035319579264938 3.2182008118106791 4.0014332907746226 130 97 57 1.4857158895022637 9 4850 11 4776 8 4206
5348 -0.61356162661902669 3.0287246087693012 4.5921924267932361 106 76 38 1.5442387992251083 3 5198 4 4659 11 4968
6005 -0.29345676639865786 2.8871537529965545 4.9024898372574999 121 93 46 0.28808273995319328 9 4729 11 4822
5349 -0.35352779268765999 0.29639772550137078 1.4152524242021827 100 31 59 1.1767049458952055 3 3474 4 4664 8 5645
5350 -0.33675209946758811 0.35467437545508823 1.3727144081057068 92 33 55 0.84835079775553046 3 4176 9 2955 8 5679
7031 3.7103255007210478 2.9802422006182892 2.0556155125668538 123 92 45 1.7051086296892142 10 178 15 94
5352 1.2113415757332444 3.883164804757917 2.1208753230116866 141 114 67 1.2124928722341464 2 5437 3 2857 4 4736
6009 -0.57632138220863915 2.9052726097887156 4.8059032724193189 104 70 32 0.35621452253603059 9 4976 11 4927
5355 0.11164937687594292 0.96955578167135814 1.3640329097534643 82 27 50 1.7242115412197612 3 2317 4 4853 9 7437
6520 0.078922022518467541 0.53464595188570863 2.4450723044045128 101 44 60 1.257626784885423 8 2918 10 1712 5 1188 15 2157 16 1015
5356 -0.053446630086943725 1.0180872354164232 1.4213727349904139 112 62 74 0.49656335939481466 3 2364 4 4884
6013 -0.34723033746638021 3.6179922476355859 2.9336825191900755 71 45 22 0.84211126976233164 9 2573 8 6579
5357 0.87134133306675798 2.4052199542020776 6.1793976370793331 102 74 37 0.84769119529696146 3 2283 4 4976 9 2146
6514 1.8525725183127308 3.2192892975398411 3.9585133268384181 140 108 69 1.1792513726910743 8 1606 10 1609 5 1575
5358 0.51190221510955836 3.6664963651894378 2.6681633156054025 93 59 24 1.3041238341441146 3 3640 4 5013 9 4881
5360 -0.97888369122573282 3.10357627541027 4.4690240298408064 89 57 19 0.74910677488060862 3 4141 4 5050
5953 7.2578058695178216 0.2938087375090091 4.8735454998528365 161 166 162 0.31646188781064977 4 2282 11 3411 8 2689
10560 -5.5958070959024511 1.5029167363104683 0.035904047202457413 4 10 29 0.67190125296952552 17 1343 22 3034 20 1532
5363 -0.56841474018901794 3.2793262373549408 3.8607832262332984 100 72 35 0.58387537320379002 3 5464 4 5075 11 3028
5364 1.0847009113322243 3.9350195355387907 1.9328899307104057 143 110 67 0.40235301774903476 3 3787 4 5084
5957 6.9718085468869653 1.0724717691324923 5.0646538843745263 38 43 41 0.77804197884577098 4 2357 11 3622 8 5442
5366 -0.15562981199901207 1.6381996983883238 1.6849838258433492 61 15 17 0.063378336597386009 3 2575 4 5109
5368 0.46087478528850978 3.7372444417065407 2.48445713309756 126 97 57 1.3146627915737483 3 3732 4 5160 9 7245
5961 -0.13950875678113142 0.18811173234613007 1.6158037326398751 137 74 95 2.5146256226280417 9 2761 11 3931
5371 0.45362150466809309 3.7894604390616289 2.3979413351286714 109 78 37 0.52921325766816107 3 2933 4 5232 9 6337
6472 5.4500684395676426 2.0185759571584696 2.5678056143025056 7 11 12 1.0176983442842091 8 858 10 1061 5 524
5372 -1.1115176756798191 3.1816944515222367 4.2342360886864423 127 95 57 0.12233191903482335 3 1782 4 5236
5965 7.2294693987250138 0.36623163826423533 4.8992173463242841 145 139 133 0.48500291405739276 4 3679 11 3988 8 2703
5373 0.4167720519584352 3.7786789694990692 2.4204290733815288 99 68 24 0.31909460270076695 3 3798 4 5241 9 5090
6466 6.504458974123092 1.6181288668462899 2.3083547336530272 168 130 153 0.49607462922684648 8 1123 10 1026 5 822
11087 0.41283358219484068 1.4395091031770186 1.9976267375499583 141 98 119 1.4360355942042589 22 6561 20 5554 30 9106
5374 0.48608947443944744 3.8220586436291368 2.3109715013049463 132 98 56 0.21565473607958507 3 3832 4 5261 9 7073
10419 -6.15482887936881 -0.66460764903127401 -0.30134764699337774 172 216 225 0.97736441211077063 21 1730 22 1405 20 958
5376 -1.192190996123117 3.1556025739512985 4.2267668684315476 87 54 19 0.15970799906351174 3 5494 4 5271
5377 0.68234967275836955 3.9124286324977189 2.0505813144332334 110 78 37 0.42492003860885519 4 5292 9 5016
5808 7.9280680352040598 -0.4232190806980155 4.3450909923102099 154 104 109 1.4760735093397874 4 485 11 702 8 1068
5378 0.3151306418326118 3.7594916159535243 2.3965824854457614 99 66 25 0.95436497865912617 3 3837 4 5307
6333 7.4014576220978174 1.1402094201681414 3.796299297142566 58 67 64 0.52523910943443097 9 1098 10 1443
5381 -0.30982375607112383 3.5673655792941825 3.0353553705497371 63 32 11 2.6111593796036141 3 1835 4 5381
5812 7.7126464419391105 -1.6381347722533135 1.2100257344544498 23 33 34 0.64591951153785432 9 567 11 720
5383 -0.79222493552290008 3.3872849133766221 3.5969613783193219 75 46 16 0.44127762394491038 3 3684 4 5409 9 6859
6838 -0.26183666419461865 3.5701678112499668 3.0897156473180671 85 53 30 1.1379969077646477 10 1523 5 1526 15 1695
5384 0.43585781457954836 3.8853355565883154 2.1198300052285286 144 107 65 0.47788129110894151 3 3031 4 5454
6331 0.35927655043993117 3.3471218062979657 3.5548529551090193 44 17 8 2.0901747839558888 11 4662 8 4018
10373 -5.2588553426018283 1.8189101300845996 0.5358137331159365 149 73 91 0.67051099258581059 17 888 21 953 22 836 20 642
5386 -0.19645947331289418 3.7102094963269758 2.6328834763375282 64 36 8 1.0576124241531171 1 4591 4 5593 9 6672
5389 0.32410456113069469 3.9449430674490964 1.9698760927785712 126 98 51 0.68174381017132779 2 5525 4 5628 9 6455
5820 0.95800686946691505 3.1464637809531846 4.2392381668044745 114 81 38 0.49708641221322214 9 972 11 903
10942 0.54781738572643601 0.6576340038468792 2.1218278458258801 19 1 1 0.23666719545780507 22 3487 20 2536
5391 -0.28449226992498444 3.7267758893706078 2.6097239261500436 76 46 8 0.58976929846043746 3 5684 4 5671 9 6791 11 7887
5393 -0.29350291829822867 3.729448782700338 2.6089729656322365 107 75 37 0.13907679685519955 3 5703 4 5683 9 6803
5760 -0.21463817757277853 1.2720486469142434 2.4582730907826877 156 122 94 2.1237436879210358 4 594 9 2033
5394 -0.11567171853327612 3.798390028409762 2.3905340706600771 93 58 18 0.158429568145556 2 5480 4 5687
6285 3.5650278337671386 3.5489921985970025 2.9717315836948024 144 107 57 1.4371990325608666 4 1719 8 2961 10 3242
5397 0.42176673097168849 2.7941447705438751 5.1714148796418851 130 101 65 0.80984452573756638 3 4491 4 5804 9 3505 11 4569
5764 -0.48225211306535848 3.5837067146232937 2.9552687966058011 92 61 33 2.1571410231610919 3 3884 9 6802
5399 -0.17026486215116457 1.9636542845662857 1.7131783521369499 91 43 41 1.4230858055031828 3 1627 4 5855 9 2198
6790 6.1552414548181371 2.6372281249897451 -1.7941365289011069 12 15 19 0.65656739330216907 8 909 5 676 15 786 16 537
5400 6.5782629561960162 0.71399812389395712 5.2027408145108458 187 182 179 0.20409845671565063 3 4099 4 5876
6283 5.0726401132654226 2.5922448048732605 5.369397977347429 81 47 9 0.49072305677131556 11 3553 8 2932
5401 0.66815099477107964 3.0191023957299938 4.6023932537286401 142 113 73 0.66548444667602258 3 2432 4 5877 9 5486
5768 -0.35392538277860192 0.35128360305749023 1.4370683624132299 98 44 60 0.40015249894934596 9 51 11 99 8 115
5405 0.93829467447088521 3.9045911937537734 2.0246198501152244 145 115 71 1.4798500118352977 1 459 2 440 3 503 4 539 7 1297 6 1151 14 1624 2 532 9 589
5772 1.1786588611123396 3.0476149237988772 4.4743029212245267 144 113 67 1.0843383556657766 9 168 11 169 8 150 10 113
5408 0.79358853656137174 3.9763425426034518 1.8637468524122529 84 65 39 1.9668972922335923 1 3074 6 6412 4 2083 7 6715 13 7312 14 7957 2 2900 9 3831 11 3813
8129 1.7560865080800663 4.2195949310634475 1.1140573806922962 97 79 55 0.4679078044489402 16 5581 25 3938 12 4202
5415 0.14167570704662075 1.976189499861424 1.7810584264158837 150 114 71 2.221209365341783 2 219 4 206
6742 4.8854581741673346 2.6766668468547037 1.5939944181586572 101 116 109 1.0092626120929022 10 80 5 85 15 63
8138 2.3409063268567243 4.1398020474198161 1.3905618802716342 117 100 72 1.5214187353608848 16 7403 25 3984 12 4255
5416 -0.66065437874276178 3.0293619456879757 4.2687223718934799 106 78 39 2.728789968425406 2 2494 4 961
6235 7.2388801022151394 -1.1977594078112723 0.07186041673064554 45 79 86 0.49461219573573006 11 1379 8 1944
7115 -0.13904436147417171 4.2209603874124859 1.3131816545437447 179 151 115 0.92920157167066719 5 791 15 1450 16 1932
5417 0.73996431339192126 3.6729644514773572 2.7130281018189604 92 59 24 0.55542021520444695 3 1012 4 1112
5720 0.37964299247972627 3.8474387426058398 2.2489345541864747 146 113 68 0.29281586546950333 3 3005 9 6250
5418 -0.085983904507851691 0.9175504374481388 1.3953905562415918 122 69 85 0.40638614585246075 3 1197 4 1261 9 1958
5423 -1.0794635114369369 2.919908685754061 4.8170123397135924 87 54 19 1.1123380285094373 2 2465 3 2666 4 4179 14 2030
7132 0.39596396276170892 3.6586682213102857 2.5923207172072456 174 141 137 0.015887399721976687 5 1297 15 1828
5426 0.24640424486890139 3.8614702688810687 2.2171214996534241 107 68 27 0.29943840605375838 2 5484 4 5547 9 6407
6317 1.3019023438940385 3.1546724912929065 4.0685957080921611 117 80 38 1.0498835800934225 11 8589 8 3772
5796 0.98839501558432985 3.1485057952122251 4.1493497298476552 84 51 10 0.86498132804453098 9 451 11 575 8 414 10 361 5 324 15 344 16 375
8145 1.6834867024776263 4.0215425674808722 1.6636365145428631 117 96 69 0.4672315073349691 16 3304 25 4042 12 3428
5431 0.14254131020821195 2.0705486954768131 3.5622285141777428 118 84 49 0.29447347011996095 3 184 9 45
6822 1.5550705870663002 3.3770807914585692 3.4982116493927164 144 107 65 0.85828557712327502 10 1306 5 1263 15 967 16 953 25 1127 18 811
7131 2.0486742777262954 3.668020915063809 2.7896470385117893 145 107 58 0.78498113317358165 5 1714 15 1775 16 1460
5433 -0.11069978323127444 1.3098634618718588 2.7427841593678921 121 86 54 1.7306921048161907 3 341 9 70
5435 0.32352297900264426 3.4384757908485719 3.4837161755572388 59 32 13 1.2777625905733077 4 135 9 89 11 134 8 136
10483 -5.5707935061221221 1.8526452616542448 0.11436195942221734 2 14 38 0.45961987531711052 17 1630 22 1819 20 1280
5440 -0.2525130192923265 1.6729281206353763 1.7445370930200907 76 28 24 0.90096323711195037 4 128 9 138 11 209
5441 0.75625058202723172 3.0297476896050224 4.5020701836220152 103 71 32 0.78103240808220964 4 255 9 167 11 222 8 228
5872 -0.53603560832313724 3.0156934051236597 4.560616534194061 138 106 65 0.011272360597369682 9 1281 11 1650
5442 -0.44333510547174398 1.0377869908111939 1.9153667174018612 102 50 62 0.90001381625114873 3 2384 9 175
6397 5.7747243745145473 2.2007846882517748 0.76865773205721755 147 149 148 0.87863306796672391 11 180 10 216 5 154 15 144
5445 1.8014388590853256 3.8358866049651739 2.2016938161384503 113 72 28 0.41950361490143823 4 247 9 210
5876 1.8884227288650668 2.9672828128277295 4.6221840769745652 142 104 65 0.40718031283971312 9 1523 11 1742 8 1245 10 770
5447 3.3208969894163216 1.7780813579326793 6.6122957926699693 129 116 100 0.85361709681105813 4 461 9 284 11 384
6902 2.1449966153198159 3.6430751722822152 2.6877843635180105 133 101 54 1.1710258193105396 10 3336 5 2758 15 2863
5448 -0.20595104546377185 1.7454983155053236 1.715714474055468 125 77 73 1.0724971674304982 4 183 9 294 11 586
6395 7.2043711322828967 1.3288784357256056 1.9440872873516928 112 62 79 1.0889415246977552 8 201 10 211 5 164
5449 0.17530547074415517 3.3078284039790233 3.7872764778298036 111 82 48 2.1123697868181117 9 307 11 267 4 293 8 218 5 203 10 202
5880 6.999218068164792 1.0195636390865093 4.9775911738281851 129 129 129 0.54229392905270635 4 1357 11 1920 8 1135
10437 -5.6073270893046878 0.8292913615546893 -0.27071767750543557 26 55 73 0.90712650206087631 17 1306 22 1509 20 918
5450 0.034494580080402855 3.7149225580759153 2.4542570785415188 89 64 51 0.21917618271663022 4 307 9 317 11 537
5453 -0.27452839923049849 -0.7174553480479412 1.6070531630432838 55 50 46 0.99988272184955052 9 358 11 706
5884 7.3103825993391709 0.16170394697061816 4.9834083305833126 133 137 130 1.2059257802562122 4 2272 11 1992 8 1877
11006 0.081853159588376023 3.9157334872452902 2.1837566832786619 161 137 93 0.69060811888848228 22 2419 20 3464 30 3960
5455 -0.35099597628542889 0.45409407720917594 1.3894756418467313 79 28 41 1.0781202283477542 4 388 9 402 11 624 8 1745
5459 0.65562270532773748 2.847407834614768 5.0036693160668833 139 106 71 0.28971945706408775 4 417 9 452 11 407
5461 5.309186183072292 1.2009368715594855 3.0431099969735116 120 132 128 1.4767839011405814 4 381 9 518
5828 7.0939309182811572 0.70800080566514467 4.9815543591719926 120 121 117 0.087609512595402991 4 1380 11 1015 8 1115
5464 -0.13363270683318693 -0.31365875539861793 1.2462762609877653 187 157 134 1.7486074367045004 4 702 9 535
6347 0.34048064757534474 2.7820631975094203 3.0088591943842067 136 106 70 1.1805414233910059 11 4470 8 4834
5673 -0.066541003963865808 3.1826477149957388 4.0343751632811209 140 108 69 1.7338860925510595 4 4009 8 6485 11 7449
5469 -0.11792903182028948 3.690431975567988 2.592186989709087 66 46 35 0.83789139831760584 4 715 9 574 11 968
6178 -0.28491958336004058 -0.014104402215333933 1.645462436816433 43 10 5 1.0409368071903125 11 1886 8 1155 10 1764
5836 7.35488393697565 0.56492152003093465 4.8941791755252 49 49 40 0.41018900969805777 4 796 11 1134 8 907
5472 0.91442154971399059 2.9640002180873664 4.6679085520413679 133 103 65 0.52460341183706904 4 579 9 621 11 574 8 578 10 368
5473 0.78367049150973023 2.701247821174269 5.3850379258608294 100 66 29 0.2426542352157203 9 630 11 573
5776 0.41501908693239375 3.4190935802392022 3.3880709617746119 41 21 10 0.38360431200754619 9 306 8 566 10 577 5 775
5474 -0.18324593815344586 1.6059037613529434 1.6733271043000755 113 63 74 0.80977739277969807 4 436 9 643 11 1264
6301 -0.39959072217413294 0.25274219536911791 1.5387850878164866 128 65 88 1.5449558551566955 11 2296 8 3541 5 2600 15 4324
5477 1.3463433226077324 3.7788661487243287 2.3641346942930697 147 105 63 0.53937694385692803 3 842 4 554 9 695
5780 -0.25191957600286402 -0.024209095257719724 1.8139400464884099 87 39 51 1.7307781577667223 9 252 11 307 8 209
5479 -0.0065850508778751244 3.5271880788852075 2.5331629832032143 45 21 17 0.54323997832638427 4 980 9 732 11 1606
6806 6.8100823725655202 2.1987389536296407 -0.95443887006338057 51 68 75 0.75690227357523954 8 1374 5 1060 15 790
5480 -0.30390516554439867 -0.58630754086374526 1.7315692822352571 19 15 14 1.7895766866691252 3 1972 9 815
6299 2.4264143096867157 1.4162199939114075 3.6617225223430667 117 85 47 2.7742876465810085 11 7112 8 3414
5481 7.4095328137233638 0.72580455919697595 3.6305893451174693 87 91 90 1.3976255447046866 4 686 9 823 8 914 10 638
5784 8.493494085791653 -2.7043775011129298 3.3134393246604938 96 140 139 0.85078375764521275 9 334 11 332 8 326
5482 -0.2463393063014313 -0.11540077061871014 1.6506246020792286 54 37 29 1.5263437442895507 4 2305 9 834 11 1151 8 879 5 1147
5485 1.2379767940398936 2.891366694415296 4.8205064501790744 107 75 37 0.33505800284409898 4 1228 9 942 11 1310
5788 7.3404715318260454 0.59467041314282343 5.0026706680735993 147 149 144 0.53542187253195983 4 280 11 346 8 302
5487 2.016334912315632 3.779460412818207 2.3369665501730168 124 86 41 0.21856526408583721 4 1063 9 960
5489 1.7045366359581424 3.7090863384673325 2.4332479190735503 155 119 69 1.950653292762393 3 989 9 971
5856 1.36193098926946 2.9926784178804651 4.5738787760454604 111 81 40 0.59411434814825259 9 2167 11 1454 8 1719
5490 8.4036311019626755 -2.4782132583661998 3.4719617273320047 4 15 9 1.0568715430586504 9 1020 11 1737 8 1024
5493 7.4556704725859992 0.77461708070054913 3.5901527616416984 44 48 47 1.1906436642033105 4 794 9 1056 8 1095 10 1272
5860 0.86758330479918477 3.0548694530560163 4.4482636969237506 132 97 55 0.8388463406100789 9 1533 11 1498 8 1287 10 852
5495 0.81676392626227912 2.4438014571708062 6.1442134038386094 97 64 31 0.039254588857448362 3 1513 9 1092
6886 6.4885746869159764 1.5633239936036984 1.7948491046300448 134 110 119 0.072065952999154498 8 3251 5 2424
5496 1.2274357174922457 2.9112385215033725 4.7960772295900744 141 107 72 0.53275041609045548 4 1770 9 1105 11 2657
6379 7.9343499427946584 1.4756434240598097 3.6218646530880592 48 56 55 2.043500856944175 9 4390 8 2770 10 4790
5497 0.61763637382427539 2.4847289675810944 5.9559464126857602 133 103 65 0.67336009623048354 4 1736 9 1111
5864 0.5222718985557 3.086150975465126 4.3496019779957384 120 89 45 1.0537388317461172 9 1192 11 1538 8 723 10 719 5 754
5501 2.005737540652508 3.7722508776691117 2.3662150113184004 156 118 69 0.34383140944530477 4 947 9 1135
5868 0.19621380835778879 3.3306071237171651 3.6906453972074797 35 7 0 0.93637818148044705 9 2388 11 1585 4 1981 8 2354 5 2066 15 3201 16 4263
5504 1.7747063696796357 3.7597360352699694 2.426298776314574 122 85 35 0.048984122951211129 4 1074 9 1151
5649 -0.52038477878848233 3.1443776988868923 4.2803075541609354 101 69 31 0.59688159643644878 4 4152 9 3903
5508 1.7632908234349725 3.8604926384694589 2.1832577972404588 145 106 57 0.28779968569350589 4 953 9 1165
5653 0.017722237400920604 3.5877278959502719 2.4706126066808767 106 78 74 0.62679713858711783 4 5355 9 3948 11 7496 8 6766
5509 0.54817798508321747 2.9341215245414967 4.7507909408140216 138 106 67 0.15969906505372203 4 1438 9 1166 11 918 10 717 8 2287
5510 1.5093424970430491 3.778744871644474 2.3534549637591291 115 76 33 0.0052345123333397987 4 1089 9 1185
6679 -0.13277598336854798 0.0013004407348141606 2.0999400733511524 118 50 71 1.4341003529409595 8 5552 10 5989 5 5199 15 7451
5512 0.52222908107860089 3.2342048068493106 3.9699892961905894 141 108 67 0.58687318995740934 4 3036 9 1211 11 927 8 1307 10 724
5657 8.5942406356969201 -2.4666316593990465 3.5243480992587113 131 135 129 1.6196495196133529 4 2190 9 4275 11 3274
5515 -0.28385133005688495 2.9202572018557382 4.7840728978647453 114 80 42 0.30485729308134824 4 1924 9 1245 11 1619
5516 -0.023016314181259077 3.1725151493312138 4.171233217611678 112 83 43 0.22917594765353377 4 1086 9 1248 11 959
5661 0.32259684402120492 3.0429943253896634 4.4850210609412908 144 110 72 0.34496519465544068 4 3796 9 4452 11 4635
5517 0.41748441767276484 2.8735661801575447 4.9875190461250893 101 67 33 0.9717295326503067 2 1611 9 1269 11 924
6162 5.1719326076221082 2.2359093347783028 3.3352156657243808 87 86 82 1.0158373281321991 4 621 10 6032
5518 -0.50368622527573015 3.0591776337693264 4.4416843242012671 132 104 65 0.59044885010843284 4 1990 9 1284 11 985
5520 -0.90523849124012323 2.8966665165106602 4.8701062335095768 125 92 57 0.25169936583345132 4 1439 9 1301
5729 -0.74426438404431849 3.147361342570532 4.2246312147134395 85 53 13 0.088833095914352608 4 5827 9 6468 11 5018
5523 2.6502224454897512 2.8560031647840147 4.9479927028808737 129 94 62 0.8115873473687738 2 1964 9 1358
5524 3.0934746508481679 2.1922571004739031 6.6022895674694366 111 80 51 0.75690318494293651 4 1255 9 1393 11 1232
5733 0.047950788334800411 3.8131677912039099 2.3748747137799819 97 59 23 0.7633981404137602 4 5589 9 6538 11 7589 8 6235
5526 0.17962925141868508 0.88385708185692302 1.4784687325180412 196 137 162 0.17913352957673218 4 1586 8 6802
6759 4.8499680959049867 2.5099763095432026 1.7712879211174017 14 18 19 0.56437241336410759 10 274 5 270
5528 8.5455501375510732 -2.4374594259156601 3.5388335368056634 136 140 139 1.837432053073671 4 2191 9 1594 11 1385 8 1531
5737 -0.48445360958019734 3.5685386452448999 3.1097620118303753 100 70 36 0.93611873770782594 4 5524 9 6768 11 7981
5532 0.18931995695605269 -0.55776565900315522 1.1997264357973674 178 184 182 2.0346955051991076 3 3303 9 1628
5741 0.99912123987319423 3.1625468901622305 4.1341524534452967 101 67 29 0.34645528920014074 4 5884 9 7004 11 2704
5533 6.5743319366765842 -0.01664101529710689 6.2979607590770916 85 97 93 1.6126461161517298 3 3364 9 1659 11 6726
6242 2.5217897577819355 3.0086980884465677 4.4979717949904865 115 80 38 0.26425968716717607 11 4150 8 2032 10 2093
5534 -0.23697428833639589 -0.028222366113449714 1.5579350620942296 21 5 0 1.2887648089408934 4 2330 9 1706 11 2169
5536 -0.34325766977442274 0.4348092753542816 2.1047393670143917 56 6 18 1.2781710031630624 4 1561 9 1909 11 2368 8 2922 10 3138 5 5322
5681 -0.65677815654919658 2.8786606934005929 4.908194763666776 103 73 35 0.46353992838703095 4 3956 9 5002 11 7896
5541 1.6314596669032599 2.490964562898824 5.8596105748913816 97 64 29 0.6092629598314846 4 1236 9 2080 11 2585
5844 2.733950009874484 2.895640691842003 4.8703785683709819 91 57 22 1.9994562137510303 9 4148 11 1248 8 799
5544 -0.21730580126383589 1.6079208705338199 1.6808894870585316 102 55 63 2.0684178619044595 4 2415 9 2106 11 4195
6363 5.259993018183752 2.7461697893432748 5.0133694683147212 125 96 54 1.7102818868662724 11 7133 8 5770 10 3146
5689 -0.21202346603598421 1.5699226184478636 1.7037449023471742 115 64 79 1.8585597984172957 4 4282 9 5196 11 2550
5549 1.0143066585760887 2.935229282073136 4.8132469252821481 100 66 31 2.0432729630819693 4 1785 9 2205 8 1400
6194 1.0379867400696476 2.9753408508692516 4.6542164130968517 111 78 37 0.23807756619503281 11 1482 8 1389 10 844
5852 7.7068008827275909 -0.76731170322550402 4.1691602937388144 181 177 176 1.3306831104633861 4 998 8 2603
5552 0.81033263636247155 2.9499460400083031 4.7097066781217043 140 108 69 0.56669786865789162 4 2881 9 2232 11 1499 8 1420
5633 0.11109406102200817 3.0644344229090801 4.5566641024176144 138 104 66 1.4158127140095109 4 3023 9 3664
5554 1.7833153824536248 3.7456757636193529 2.4399257898688607 158 122 72 0.33530103483886775 4 1923 9 2239
10240 -5.4690618427678332 1.493465966372546 0.36800733903622029 56 40 76 0.1677337927825685 21 3658 17 3121
5555 0.74613217645608354 2.9580485526667375 4.6161445483308343 138 110 71 1.8424290059211825 4 2902 9 2242 11 4479
5556 0.78576888675257184 3.0255599730002243 4.4999142051571521 101 67 29 0.6288659031491397 4 3569 9 2247 11 1505 8 1419 10 854 5 763
5637 0.33703047835847161 3.3311021109629824 3.6952159240061198 98 61 60 1.6218459016342053 4 2576 9 3701 8 4036
5558 0.21507820611825132 2.718285140051635 5.2047690313843837 137 105 67 1.4026904211491349 4 1824 9 2276 11 4619
5560 0.48982311737467654 3.0843320915244052 4.3958217945229432 151 118 75 0.20981151323802219 3 2001 9 2295 11 4584
5641 0.0025486793429675535 3.1609614622960462 4.1091983375752088 138 106 67 1.868452389776883 4 3971 9 3745 11 4752
5563 0.27411415962322705 3.2016574697768241 4.078749393547537 116 85 39 0.69705023931695875 4 3060 9 2345 11 2851
6152 1.6207693948656001 3.2217274754817651 3.9753969821835327 118 85 40 0.44316356929513973 11 1299 8 769 10 766
5564 0.43697347263369879 3.3435724475532314 3.4308574754839287 85 65 56 1.4743917818026273 4 1962 9 2350 11 1551 8 1452 10 2368
5645 0.79225080282158655 3.9805194228687344 1.8452151829645997 161 124 80 0.93981960175727153 2 2915 4 5347 9 3832
5565 -0.16523821165253263 2.9469954566673509 4.7459957989658879 100 68 29 0.072768416721420676 3 4620 9 2367
6146 6.3357190216578294 1.7180543237813044 2.5540771579959674 185 161 174 1.5305707217951701 9 1739 8 654 10 1808 5 1122
10767 -1.6450623650200631 3.8864036291535138 2.0998433673723063 137 116 73 1.2054154507314172 22 342 20 301 30 154
5566 0.20758631994675797 3.3691351567336834 3.6651264011538203 102 75 36 1.4556014376845865 4 2178 9 2389 11 2885 10 4188
5572 -0.88540905212783616 2.9356406592495801 4.8487661219327824 116 83 48 0.47626426875976913 4 3181 9 2500
5717 0.79029322562730187 2.6738869065693138 5.500147595814334 132 100 62 1.8126844703567375 4 5345 9 6080 11 4445 11 5697
10314 -5.3450005380136369 0.92615247584360594 0.19295874062572785 41 38 69 0.97535979264044537 17 412 22 485 20 412
5573 0.2234387593263083 3.8396231042479703 2.2960888994820299 140 103 61 0.34579481018520841 4 3418 9 2518
7972 -0.27291493427673569 -0.52229773382156897 1.6266941330028792 11 10 8 2.8184395704601073 5 109 16 784
5574 -0.048998432853750176 3.6157245873093622 2.4986793390876629 41 16 12 0.66301804107631956 4 2095 9 2522 11 2942 8 2356 10 6367
6743 1.0881796212222088 3.335005244091048 3.6080125442808884 115 77 38 1.314827358472427 10 112 5 92 15 86 16 79
6953 -0.71869232013206719 4.0056232397853044 2.1359775769896623 134 102 55 2.0946094027534765 10 4355 5 3938 15 5051
5579 0.21112548017121738 3.2810335751626352 3.8347824329759947 118 84 51 0.1636363359154476 4 3126 9 2646 11 2867
6232 7.5887945533790191 1.0032373441277729 3.7002504082925363 78 89 85 0.28777714615154604 9 1065 8 1859
6946 0.49365707911813234 2.3871702189647159 2.9191742664818472 92 59 37 0.99623571289296942 10 2177 5 3501
5580 0.0118104055803841 3.6081837321141816 2.4636802181965214 56 30 23 0.76750110227724999 4 3375 9 2653 11 2926 8 2329 10 4065
5725 0.42099182058046952 3.9753842807330431 1.861505043337836 128 95 50 1.2694941407537554 3 4948 9 6389 11 7326
7971 5.8324606377879249 2.6793731524824396 -0.81897967300478169 18 18 17 1.9555068698973379 5 2444 16 5028 8 3291
5581 2.2603716051302385 2.4461768612158354 5.9800351326959706 107 75 37 0.5750291582755882 4 4915 9 2698 11 4153
6226 6.0441245718215075 2.0017134886883099 2.2386686581038107 183 155 169 1.4754873326211033 9 1771 8 1787 5 2519
5587 -0.3402435856410253 0.40195485915378038 1.3611792992288689 93 35 57 1.6050216033138835 3 5447 9 3042 11 2317 8 2895
5588 -0.27059626249973739 -0.02309158353939908 1.6519039339313291 50 31 27 0.37252004425131852 9 3103 11 2200
5797 3.0082746771317379 2.6076764064323141 5.5726951870868646 138 106 68 0.15907692630254483 9 660 11 598
7988 1.2433698162456515 3.5710394608239686 3.0018110786980117 87 61 36 1.3556373705643399 16 247 25 237 12 272 18 199
